0 1 4
0.309017 0.951057 4
0.587785 0.809017 4
0.809017 0.587785 4
0.951057 0.309017 4
1 6.12323e-17 4
0.951057 -0.309017 4
0.809017 -0.587785 4
0.587785 -0.809017 4
0.309017 -0.951057 4
1.22465e-16 -1 4
-0.309017 -0.951057 4
-0.587785 -0.809017 4
-0.809017 -0.587785 4
-0.951057 -0.309017 4
-1 -1.83697e-16 4
-0.951057 0.309017 4
-0.809017 0.587785 4
-0.587785 0.809017 4
-0.309017 0.951057 4
0 1 5
0.309017 0.951057 5
0.587785 0.809017 5
0.809017 0.587785 5
0.951057 0.309017 5
1 6.12323e-17 5
0.951057 -0.309017 5
0.809017 -0.587785 5
0.587785 -0.809017 5
0.309017 -0.951057 5
1.22465e-16 -1 5
-0.309017 -0.951057 5
-0.587785 -0.809017 5
-0.809017 -0.587785 5
-0.951057 -0.309017 5
-1 -1.83697e-16 5
-0.951057 0.309017 5
-0.809017 0.587785 5
-0.587785 0.809017 5
-0.309017 0.951057 5
0 1 0
0.309017 0.951057 0
0.587785 0.809017 0
0.809017 0.587785 0
0.951057 0.309017 0
1 6.12323e-17 0
0.951057 -0.309017 0
0.809017 -0.587785 0
0.587785 -0.809017 0
0.309017 -0.951057 0
1.22465e-16 -1 0
-0.309017 -0.951057 0
-0.587785 -0.809017 0
-0.809017 -0.587785 0
-0.951057 -0.309017 0
-1 -1.83697e-16 0
-0.951057 0.309017 0
-0.809017 0.587785 0
-0.587785 0.809017 0
-0.309017 0.951057 0
0 1 1
0.309017 0.951057 1
0.587785 0.809017 1
0.809017 0.587785 1
0.951057 0.309017 1
1 6.12323e-17 1
0.951057 -0.309017 1
0.809017 -0.587785 1
0.587785 -0.809017 1
0.309017 -0.951057 1
1.22465e-16 -1 1
-0.309017 -0.951057 1
-0.587785 -0.809017 1
-0.809017 -0.587785 1
-0.951057 -0.309017 1
-1 -1.83697e-16 1
-0.951057 0.309017 1
-0.809017 0.587785 1
-0.587785 0.809017 1
-0.309017 0.951057 1
0 1 2
0.309017 0.951057 2
0.587785 0.809017 2
0.809017 0.587785 2
0.951057 0.309017 2
1 6.12323e-17 2
0.951057 -0.309017 2
0.809017 -0.587785 2
0.587785 -0.809017 2
0.309017 -0.951057 2
1.22465e-16 -1 2
-0.309017 -0.951057 2
-0.587785 -0.809017 2
-0.809017 -0.587785 2
-0.951057 -0.309017 2
-1 -1.83697e-16 2
-0.951057 0.309017 2
-0.809017 0.587785 2
-0.587785 0.809017 2
-0.309017 0.951057 2
0 1 3
0.309017 0.951057 3
0.587785 0.809017 3
0.809017 0.587785 3
0.951057 0.309017 3
1 6.12323e-17 3
0.951057 -0.309017 3
0.809017 -0.587785 3
0.587785 -0.809017 3
0.309017 -0.951057 3
1.22465e-16 -1 3
-0.309017 -0.951057 3
-0.587785 -0.809017 3
-0.809017 -0.587785 3
-0.951057 -0.309017 3
-1 -1.83697e-16 3
-0.951057 0.309017 3
-0.809017 0.587785 3
-0.587785 0.809017 3
-0.309017 0.951057 3
